0.0851767145866,0.0893481193418841,0.0933141453371475,0.0970237269843293,0.100429942115532,0.103496143887338,0.106202506156538,0.108551827509197,0.110573257110202,0.112322791199966,0.113879896970549,0.115340036779622,0.116802339495469,0.118349271422141,0.120011458183822,0.121711537953292,0.123200176921277,0.124044174151354,0.12375513999866,0.12204807254139,0.119026869942486,0.115110990103707,0.11079474946512,0.106460461878855,0.102327694223113,0.0984856139572894,0.0949429714728103,0.0916665441409092,0.0886041931103099,0.0856969090837694,0.0828845260828557,0.0801082179480392,0.0773115203560222,0.0744407630063275,0.0714453183282939,0.0682778099140326,0.0648942655173412,0.0612540837380451,0.057319576953446,0.05305473326664,0.048422681353353,0.0433811061149012,0.0378745071661781,0.0318217081463077,0.0250965230936995,0.0174993195342672,0.00871813414249112,-0.00171855898014095,-0.0144860010920026,-0.0304670328668164,-0.0505952522778121,-0.075101553988444,-0.100637923094889,-0.113879270732841,-0.101065586127108,-0.078246560375469,-0.0594991187982884,-0.0439445796199578,-0.0309739230577425,-0.0214619408417568,-0.0162157339857603,-0.0154854198217333,-0.0186513806142711,-0.0236081873156905,-0.0266241404386516,-0.0243160098286344,-0.0165252254310597,-0.00592672178858011,0.00477152638726008,0.014147141474298,0.0217396918037132,0.0275127079366759,0.0316294861272337,0.0344645605239657,0.0366299660818907,0.0388171548714755,0.0414913234875678,0.0447275535961957,0.048324617501859,0.0520171982502384,0.0556038383436981,0.0589732277333666,0.0620834868256641,0.0649343737677495,0.067546425169648,0.0699482201533996,0.0721694842237228,0.0742377468916795,0.0761769876901244,0.0780073303330584,0.0797452527132652,0.0814040211672307,0.082994193798436,0.0845241136074537,0.0860003541099454,0.0874281030055062,0.0888114816545824,0.090153804304175,0.0914577838140205,0.092725691575372,0.0939594792462672,0.095160869346153,0.0963314209439399,0.0974725757976462,0.0985856894499022,0.0996720509968603,0.100732894549431,0.101769404800255,0.102782718595557,0.103773923980417,0.104744057830522,0.105694102893374,0.106624984828184,0.107537569647379,0.108432661816561,0.109311003156619,0.110173272606119,0.111020086838645,0.111852001684727,0.112669514277127,0.113473065819275,0.114263044866417,0.115039791006105,0.115803598826489,0.116554722067208,0.117293377856009,0.118019750944859,0.118733997870589,0.119436250976956,0.120126622246621,0.12080520690288,0.121472086751395,0.122127333241823,0.122771010237799,0.12340317649118,0.124023887822835,0.124633199017502,0.125231165444521,0.125817844419417,0.126393296323808,0.126957585502617,0.127510780958531,0.128052956864038,0.12858419291115,0.129104574518493,0.129614192914564,0.130113145114937,0.13060153380998,0.131079467178364,0.131547058640236,0.132004426562623,0.132451693928221,0.132888987977477,0.133316439832536,0.13373418411059,0.134142358532949,0.134541103535236,0.134930561883213
0.0921871731067794,0.0968759717763439,0.101333886754992,0.105483771206216,0.109248822208952,0.112561213948673,0.115372107754784,0.117661265257619,0.119443911519527,0.120772535889184,0.121732114596744,0.122428475960501,0.122970495605697,0.123446933350759,0.12389859423162,0.124288834802425,0.12448393970858,0.124267152876181,0.123407531300828,0.121765253752156,0.119364415721539,0.116376708051682,0.113037790570408,0.109564794506842,0.106115362770767,0.102783774000893,0.0996137969992059,0.096613888193219,0.0937692954308544,0.091050461277391,0.088418590858254,0.0858293233977914,0.0832351951286636,0.080587348869424,0.0778367788712024,0.0749352710313451,0.0718360792606554,0.068494252051958,0.0648663835132672,0.0609094106541228,0.056577912579131,0.0518191780431236,0.0465650781654545,0.0407195034108534,0.0341398412563139,0.0266108434931933,0.0178096750335701,0.00726311269160962,-0.00569421071990928,-0.0219222248660459,-0.0422868287676245,-0.0667193531197005,-0.0910684078049742,-0.102768873862712,-0.0917037291035925,-0.0695224730798767,-0.0495537822910779,-0.0339523140399668,-0.0220081561301038,-0.0135303931874636,-0.00854756497725551,-0.00683236658219522,-0.00761110064340931,-0.00937339344707244,-0.0100801780280241,-0.00810203082648442,-0.00322554654552853,0.00349887301314089,0.0107788520165402,0.0177260654898383,0.023877419927437,0.0290346538162281,0.0331814625723708,0.0364786527591392,0.0392486404816907,0.0418779512016532,0.0446636559469682,0.0477158701139506,0.0509800413727237,0.0543272982522895,0.0576320858358119,0.0608066999621411,0.063804119286669,0.0666080098881419,0.069221223881597,0.0716568703526523,0.0739324480296522,0.0760663742997889,0.0780761210160343,0.0799773424275141,0.0817835808350367,0.0835062891573271,0.085155012754508,0.0867376381775229,0.0882606566603314,0.0897294144083134,0.09114833614456,0.0925211167757787,0.0938508807875362,0.0951403115180134,0.0963917536749719,0.0976072928946194,0.0987888161270354,0.0999380563749923,0.10105662493655,0.102146033881804,0.103207711074795,0.104243009657678,0.105253213558358,0.106239540269744,0.107203141879527,0.108145105101418,0.109066450868988,0.109968133897317,0.110851042491567,0.111715998780948,0.112563759478063,0.113395017203086,0.11421040236742,0.115010485579028,0.115795780509581,0.11656674714973,0.117323795371679,0.118067288715941,0.118797548321129,0.119514856920061,0.120219462832279,0.120911583890844,0.121591411250092,0.122259113029888,0.12291483776081,0.123558717603211,0.12419087132096,0.124811406997972,0.125420424491971,0.126018017625489,0.126604276118892,0.127179287273949,0.127743137419699,0.128295913134521,0.128837702260157,0.129368594724331,0.129888683189357,0.130398063544044,0.130896835256182,0.131385101602181,0.131862969789822,0.132330550989061,0.13278796028491,0.133235316565172,0.133672742354779,0.134100363607351,0.134518309463334,0.134926711983157,0.135325705862736,0.13571542813765,0.136096017881524,0.136467615903216
0.0997628056326132,0.105117066393434,0.110229298709494,0.114989750939711,0.119282285695707,0.122996366754485,0.126042364186551,0.128367592258997,0.129969113497537,0.130899034928726,0.131259340402752,0.131185967136264,0.130824708377213,0.13030337803862,0.129705272462714,0.12904942066856,0.128284545088331,0.12730437201419,0.125986453460166,0.124242267491748,0.122053614760956,0.11947646024314,0.116616168746439,0.113593912244246,0.110520599230144,0.107482974856832,0.104539252436279,0.101720312274523,0.0990335560642805,0.0964676417101258,0.0939970871437514,0.0915862399822289,0.0891924584571486,0.0867685661524047,0.0842647435932369,0.081630022654009,0.0788134745724836,0.0757650473718063,0.0724358352667738,0.0687773800390221,0.0647394449709842,0.0602655898039948,0.0552858145096238,0.0497055213261779,0.0433900887464491,0.0361446119852422,0.0276893947685328,0.0176353491037258,0.00547527885648647,-0.00935489537784284,-0.0271774059210723,-0.0471169885308887,-0.0650876411501031,-0.0730761114702255,-0.0663498714549614,-0.0508611050883592,-0.0348798484258952,-0.0216738887253547,-0.0116157357549302,-0.00453936752696005,-0.000224319994867606,0.00171805162784899,0.0019810516565022,0.00158176405580246,0.00165955213388513,0.00306570045398069,0.00604249043657545,0.0102953063753386,0.0153132722781297,0.0206004696072588,0.025751862254791,0.0304787734427314,0.0346345315569594,0.0382284140931561,0.0414037457368419,0.0443704698570071,0.0473158082514886,0.0503412796010692,0.0534554498696784,0.0566080213009619,0.0597310702754623,0.062765931908608,0.0656732798946216,0.0684327332914176,0.0710383341284362,0.0734935423162151,0.0758071777670324,0.0779905745953526,0.0800557664261752,0.082014423913306,0.0838772969712074,0.0856539764306137,0.0873528472285681,0.0889811489915806,0.0905450905523197,0.0920499855395074,0.0935003896500017,0.0949002288494873,0.0962529131845087,0.0975614342316351,0.0988284461961428,0.100056331787889,0.101247254563926,0.102403199643712,0.103526004709446,0.104617383089475,0.105678940543967,0.106712187165673,0.107718545597465,0.108699356565807,0.10965588254345,0.110589310188878,0.111500752065752,0.112391248022606,0.113261766509774,0.114113206025745,0.114946396816271,0.115762102895217,0.116561024413843,0.117343800373472,0.118111011653542,0.118863184311131,0.119600793098439,0.120324265139359,0.121033983705124,0.121730292030341,0.122413497114455,0.123083873458628,0.12374166669426,0.124387097065753,0.125020362737082,0.125641642898299,0.126251100654554,0.126848885686159,0.127435136673584,0.12800998348608,0.128573549136703,0.129125951509989,0.129667304871333,0.130197721169339,0.130717311144025,0.13122618525495,0.13172445444395,0.132212230747543,0.132689627773974,0.133156761059602,0.133613748318815,0.134060709600974,0.1344977673671,0.13492504649808,0.135342674245328,0.135750780133777,0.136149495826197,0.136538954956853,0.136919292941646,0.137290646770993,0.13765315479093,0.138006956477128
0.107985637696564,0.114195130446985,0.120175606143344,0.125776161751947,0.13082735389526,0.1351573156467,0.138615015750226,0.141097170847817,0.142572186051712,0.143093097113735,0.142793427319106,0.141865031148775,0.140523046117068,0.138966964760765,0.137347130102365,0.135743671314879,0.134161979106651,0.132545882876992,0.130805713951488,0.128853291642923,0.126632475271132,0.124135771952908,0.121403924992055,0.118512097871604,0.115549885017612,0.112602382726946,0.109736983818206,0.106997163053331,0.104401969419469,0.10194893510547,0.0996183196397658,0.0973773344856683,0.0951837202369421,0.0929885599058304,0.0907384865652299,0.0883775284249537,0.0858487765984586,0.0830958956390992,0.080064262859104,0.0767012788512507,0.072955218585697,0.0687719645285587,0.0640891128666747,0.0588272530885499,0.0528786830196215,0.0460946041806511,0.0382736265068113,0.0291591474375195,0.0184657936898034,0.00598611029126395,-0.00811135117840689,-0.0226479129885544,-0.0346721743654281,-0.0400452566164152,-0.0368531293880446,-0.027785111499102,-0.0171746970392592,-0.00767878406336986,-0.000220436887397701,0.00504313648753629,0.00823463972655158,0.00966161194545467,0.00982510535870595,0.00939008490118143,0.00907048883864348,0.00946972737879714,0.0109695773070544,0.0136919460231983,0.0174922179438437,0.0220079570605138,0.0267916228116067,0.0314583921592011,0.0357718909334201,0.0396575620741322,0.043168032632577,0.0464239998901168,0.0495518795625631,0.052639555982996,0.0557220559780001,0.0587920918437517,0.0618204762755861,0.0647738244808405,0.0676247431699863,0.070355383636507,0.0729570678531406,0.0754282954236607,0.0777724822928454,0.079996024284851,0.082106848036795,0.0841134186308437,0.0860241097632242,0.0878468373276937,0.0895888733036818,0.0912567769839616,0.0928563985188677,0.0943929238360448,0.095870940368582,0.0972945103864193,0.0986672438187282,0.0999923659046458,0.101272777297383,0.102511105724771,0.103709749230465,0.104870911562286,0.105996630562676,0.10708880053767,0.108149189595783,0.10917945289776,0.110181142671082,0.111155715737925,0.112104539194822,0.113028894774194,0.113929982317285,0.11480892269721,0.115666760451337,0.116504466313792,0.11732293978174,0.118123011801899,0.118905447625999,0.119670949854178,0.12042016166284,0.121153670197083,0.121872010096546,0.122575667116364,0.123265081801488,0.123940653171599,0.124602742375098,0.125251676273417,0.125887750920843,0.126511234909477,0.127122372554076,0.127721386896495,0.128308482514591,0.128883848125128,0.129447658974724,0.130000079016848,0.130541262876453,0.131071357606755,0.131590504245272,0.132098839178233,0.132596495323996,0.133083603147283,0.133560291516776,0.134026688419051,0.134482921541871,0.134929118739849,0.135365408395057,0.135791919684689,0.136208782767368,0.136616128898802,0.137014090486937,0.13740280109579,0.137782395406453,0.138153009142887,0.138514778969368,0.138867842365699,0.139212337485556,0.139548403002713
0.116930477739779,0.124236111273651,0.131365677791452,0.138117075128475,0.144248010713791,0.149496294508822,0.153614563304115,0.156415477172291,0.157816461788428,0.157868512881835,0.156755881910851,0.154763457549475,0.152221330551852,0.149443817102478,0.146679313178795,0.144080352967209,0.141695772384,0.139482610204769,0.137334125470953,0.135119349556296,0.132726384228365,0.130097178220337,0.12724144221955,0.124225975261749,0.121147882906613,0.118105849826758,0.115179793705696,0.112421631491838,0.10985461959111,0.107477265197225,0.105268626988604,0.103193220499794,0.101204869933452,0.0992495311481909,0.0972674416588808,0.095195047802819,0.0929670795192679,0.0905189120591092,0.0877890021626859,0.0847208017541716,0.0812632911496125,0.0773693051610937,0.072991231355201,0.0680743780160042,0.0625492118855384,0.0563247837567749,0.0492874950888902,0.0413132283728379,0.0323090676676316,0.0223149325274028,0.0117053769043789,0.00148167656501741,-0.0065880197632473,-0.0105498610997363,-0.0096588606106055,-0.00512276076801765,0.000913120318817517,0.00673545494312644,0.0114394894284902,0.0146745299956752,0.0163825578426551,0.0166819749957074,0.0158346193319707,0.0142388762000287,0.0124399908729633,0.0111499794629821,0.0111615963290941,0.0130118226269933,0.0166274254423626,0.0214034387367144,0.0266159713455938,0.0317288187155953,0.0364614504018737,0.040733898113261,0.0445891917864201,0.0481271871842719,0.0514553189176836,0.0546578469998888,0.057783925430936,0.0608506150531889,0.0638535494674575,0.0667783882018769,0.0696092561386517,0.0723333866289937,0.0749428046753646,0.0774342538151878,0.0798083279169886,0.0820683968825189,0.0842196188432822,0.0862681482977952,0.0882205545892329,0.0900834241885831,0.0918631079593042,0.0935655755141529,0.0951963447148652,0.0967604613716657,0.098262510614624,0.0997066466884322,0.101096632021093,0.102435879480976,0.103727493963535,0.104974311027477,0.106178931391585,0.107343750835603,0.108470985521131,0.109562693036011,0.110620789624073,0.111647064132343,0.11264318921969,0.113610730345764,0.114551153012286,0.115465828670651,0.116356039647763,0.117222983380731,0.118067776193374,0.118891456795521,0.11969498964011,0.120479268233978,0.121245118465526,0.121993301985609,0.122724519657045,0.123439415071835,0.124138578123286,0.124822548612039,0.125491819859826,0.126146842302085,0.126788027029998,0.127415749253356,0.128030351657768,0.128632147632617,0.12922142434961,0.129798445675394,0.130363454905682,0.130916677311825,0.131458322494608,0.131988586543029,0.132507653999044,0.133015699631608,0.133512890025717,0.133999384993821,0.134475338818536,0.134940901336585,0.135396218874653,0.135841435048413,0.136276691436051,0.136702128137715,0.137117884232116,0.137524098141066,0.137920907912457,0.13830845143145,0.138686866569172,0.139056291277476,0.139416863637682,0.139768721870508,0.140112004313772,0.140446849373697,0.140773395455107,0.14109178087517
0.126653804010983,0.135357328355227,0.144002551106605,0.152326650495556,0.159989135991671,0.166593972402092,0.171739492550083,0.17509391661217,0.176479191541012,0.1759327009217,0.173717294191372,0.17027004246012,0.166108144009777,0.161726962128686,0.157520609471927,0.153737636388042,0.150468464397621,0.147656561100686,0.145130830114772,0.142662221590447,0.140040082826148,0.137143060730851,0.13396955539617,0.130615117800077,0.127219290642993,0.123915740151422,0.120803955971701,0.117941759082874,0.115349781807201,0.11301996233662,0.110923624907282,0.109017528792183,0.107247791068811,0.105552240215835,0.103861983997167,0.102103005169446,0.100198477543336,0.0980721738165693,0.0956527829181661,0.0928782695244847,0.0896988817824742,0.0860774204928387,0.0819861294642368,0.0774008824422265,0.0722947774907086,0.0666344640646599,0.0603836422481436,0.0535197488396157,0.0460722246978742,0.0381919781341375,0.0302522750935186,0.0229391816950331,0.0172040774064457,0.0139228769150188,0.013363831082368,0.0149575286832033,0.0176511097713508,0.0204455183256202,0.0226534257790949,0.0238776984577613,0.023907872822724,0.0226433476472272,0.0200675048999424,0.0163026002146944,0.0118187951091673,0.00776856139072346,0.00592362663926194,0.00755361923178688,0.0122787104907933,0.018600203129741,0.0251708157844848,0.0312829566221937,0.0367150519456756,0.0414890452674737,0.0457205302702728,0.049545433056869,0.0530857900911319,0.0564347151865559,0.0596527835348648,0.0627719149271269,0.0658031835137411,0.0687452789746026,0.0715914597035678,0.0743341981790098,0.0769676892425686,0.0794888107971485,0.08189715482334,0.0841946026718312,0.0863847469731049,0.0884723252833914,0.0904627398742464,0.0923616856157721,0.0941748812624155,0.0959078882297215,0.0975659980617043,0.0991541709182242,0.100677010148008,0.102138761108821,0.10354332527224,0.104894283083092,0.106194920989757,0.107448259559022,0.108657080706136,0.109823952880825,0.110951253620652,0.112041189271561,0.113095811928477,0.114117033803098,0.115106639310072,0.116066295197997,0.116997559054389,0.117901886495531,0.118780637321845,0.119635080882636,0.120466400855621,0.121275699608635,0.12206400227566,0.122832260647496,0.123581356949733,0.124312107557205,0.125025266674699,0.125721529998235,0.126401538359182,0.127065881344699,0.127715100881539,0.128349694766595,0.128970120125303,0.129576796778443,0.130170110498647,0.130750416139217,0.131318040620074,0.131873285758149,0.132416430932218,0.132947735575039,0.13346744148833,0.133975774978826,0.134472948815924,0.134959164013716,0.135434611441973,0.135899473272259,0.136353924266646,0.136798132917457,0.137232262447264,0.137656471678797,0.138070915784698,0.138475746927198,0.138871114797603,0.139257167065335,0.139634049745892,0.140001907496702,0.140360883849321,0.140711121385895,0.141052761867284,0.141385946319605,0.141710815085384,0.142027507845012,0.142336163613479,0.142636920717035
0.137175864446413,0.14764693960552,0.158279941076702,0.168747423284923,0.178581943762744,0.1871915107203,0.19392589602588,0.198200900289001,0.199656190971132,0.198286389962163,0.194477113203979,0.188918634374333,0.182435625193554,0.17580896997514,0.169649586011452,0.164338935661329,0.160016422114819,0.156589993879628,0.15376888491856,0.151142972908048,0.148321613918444,0.145081171989271,0.141426897856072,0.137534049712914,0.133632496208782,0.129917330396854,0.126513898030612,0.123480934638921,0.120827836479456,0.118531861449856,0.116550431708424,0.114828357532189,0.113301269993814,0.111896741741567,0.110534482473155,0.109126925152115,0.107581413705067,0.10580483498316,0.103710688703999,0.10122730463526,0.0983047194517632,0.094917478916994,0.0910619061056166,0.0867488036108044,0.0819949453183311,0.0768179867048788,0.071239382030454,0.0652989469713749,0.0590828223459829,0.0527622729226516,0.0466306733263524,0.0411081352618261,0.0366688389741854,0.0336731487713888,0.0321808820410909,0.0318945585805799,0.0322877537474537,0.0327990160061118,0.0329500985510116,0.0323610981778788,0.0307086888139496,0.0276720185532553,0.0229071709146516,0.0161528441303367,0.0077125550060384,-0.000542347451620517,-0.00488819757124814,-0.00261132099908934,0.00488835158858514,0.0141595780387433,0.0229154004145879,0.030422609644047,0.0367107617257625,0.0420280705939298,0.0466316617007285,0.0507312348742059,0.0544827080723056,0.0579945722502899,0.0613366927998136,0.064549391007225,0.067652159846862,0.0706513651399543,0.0735463668160383,0.0763338369176487,0.0790104179357398,0.081574085341787,0.0840246303260117,0.0863636226061903,0.0885941162393591,0.0907202670907612,0.0927469573128621,0.0946794725219307,0.0965232471638529,0.0982836771037443,0.0999659907572796,0.101575167462762,0.103115891881043,0.104592534553943,0.106009150528314,0.107369489732474,0.108677014376148,0.109934919963091,0.111146157553353,0.11231345571662,0.113439341216711,0.114526157900212,0.115576083564772,0.116591144785949,0.117573229810611,0.118524099700076,0.11944539794291,0.120338658767639,0.121205314378581,0.122046701320081,0.12286406615061,0.123658570581705,0.124431296209982,0.125183248944981,0.125915363212341,0.126628505991218,0.127323480727303,0.12800103114808,0.12866184499516,0.129306557679257,0.12993575585644,0.130549980919394,0.131149732394231,0.131735471231661,0.132307622980649,0.132866580833197,0.13341270852957,0.13394634311508,0.134467797541088,0.134977363105032,0.135475311726109,0.135961898055497,0.136437361421622,0.136901927612912,0.137355810501916,0.137799213516019,0.138232330961163,0.138655349205747,0.139068447732703,0.139471800068118,0.139865574595109,0.140249935261793,0.140625042192172,0.140991052208587,0.141348119274227,0.141696394863774,0.142036028269936,0.142367166853158,0.142689956241341,0.143004540485921,0.143311062180131,0.143609662544824,0.143900481486716,0.144183657633407
0.148453945207268,0.16112878984949,0.17434164523746,0.187712665041455,0.200624085282811,0.212206704766664,0.221413091542209,0.227214825868971,0.228900289237905,0.226354992065389,0.220162152661061,0.211446173418761,0.201544987481351,0.191686855291137,0.182794518663245,0.175424638347793,0.169777069644538,0.165709136596813,0.162749194230303,0.160184283123283,0.15730150568411,0.153698200043075,0.149414595662187,0.144788219731895,0.140206930645628,0.13595531294268,0.132184324379933,0.128942458918851,0.126216168657975,0.12395943880612,0.122110628879134,0.120600052033309,0.119351858253414,0.118282828501896,0.117300063335633,0.116299444073489,0.115166876901102,0.113784145183757,0.112040029030397,0.109844937637064,0.107144495815851,0.103926362459876,0.100216745253288,0.0960679396141249,0.0915427321711528,0.08670299216835,0.0816080817037574,0.076325315676379,0.0709504006615285,0.065630160372109,0.0605730536570888,0.0560288739807568,0.0522273387208438,0.0492938013449127,0.0471912302094197,0.0457273762608876,0.0446122210501545,0.043517657805084,0.0421078275472742,0.0400341587369037,0.0368986168236451,0.0321927661631878,0.0252458961811739,0.0153306700150697,0.0023949180145495,-0.0109568932823121,-0.0181968225792118,-0.0144317130409979,-0.00298441467641419,0.00985008604516513,0.0209086512720049,0.0297247043534601,0.0367419715911075,0.0424925072484952,0.0473893540152794,0.0517170119963244,0.0556622512086371,0.0593437857140968,0.0628340942262364,0.0661746997735488,0.0693870106858039,0.0724801344382759,0.0754564421853599,0.07831534877343,0.0810556782996315,0.0836769658440397,0.0861800206442001,0.0885670249891948,0.090841377063607,0.0930074206555596,0.0950701502659892,0.0970349401433954,0.0989073191248011,0.10069279701521,0.102396739460274,0.104024284235126,0.105580290657888,0.107069314144138,0.108495598938913,0.109863083323027,0.111175412835326,0.112435958160635,0.113647835259597,0.114813926057846,0.115936898585167,0.117019225884885,0.11806320332637,0.119070964173412,0.120044493409708,0.120985639917432,0.121896127159981,0.122777562546907,0.123631445666246,0.124459175563622,0.125262057233573,0.126041307469907,0.126798060201364,0.127533371417994,0.128248223773768,0.128943530932641,0.129620141709148,0.130278844040649,0.130920368816681,0.131545393581432,0.132154546117865,0.132748407916346,0.133327517526583,0.133892373789015,0.134443438940085,0.134981141585294,0.135505879533851,0.136018022489431,0.136517914592429,0.137005876810416,0.137482209174825,0.137947192863351,0.138401092128983,0.138844156077888,0.139276620299666,0.139698708354523,0.140110633122895,0.140512598023791,0.140904798108783,0.141287421038932,0.141660647952333,0.142024654230039,0.142379610168216,0.142725681564252,0.143063030224465,0.143391814400682,0.143712189162806,0.144024306714017,0.144328316654942,0.144624366202709,0.144912600370309,0.145193162111423,0.145466192435243,0.145731830495597
0.160346104754629,0.17570786840203,0.192207620335401,0.209459812414312,0.226699890799406,0.242692762663928,0.255772230620624,0.264130082570519,0.266373588777695,0.262132195139616,0.252319818084448,0.238830719187396,0.223872719592672,0.2093631143001,0.196640905910657,0.186458215820551,0.179073002466381,0.174288741240617,0.171407728230413,0.169260948842285,0.166585002203666,0.162662880868536,0.157619369365538,0.152084421592168,0.146689459371879,0.141828135344235,0.137663824381392,0.134216348351464,0.131435909507253,0.129246109645161,0.127563715656663,0.126304874074946,0.12538407865759,0.124709386110818,0.124176129987526,0.123661452837113,0.12302283024349,0.122104419466667,0.120753927489665,0.118848344115906,0.116320285110357,0.113172599808185,0.109472637399674,0.10532827891229,0.100857431229858,0.0961642571669443,0.0913301751186657,0.0864210572619528,0.0815066652639429,0.0766834390613857,0.0720874536698657,0.0678833514138575,0.0642212952509646,0.0611722429441837,0.0586789809163191,0.0565646798679817,0.0545909980785826,0.0525073303166148,0.050053155436524,0.0469209865976536,0.0426958346421491,0.0367771800640111,0.0283097048655752,0.0162858358193858,0.000416531115480456,-0.016248193884996,-0.0252872541925911,-0.0204068864559024,-0.00649511276524117,0.00829375744761252,0.0204469575710411,0.0297926063344784,0.0370669549787443,0.0429750839260592,0.0480124771455761,0.0524933528171001,0.0566074514328538,0.0604655113147636,0.0641299079943587,0.067634095272548,0.0709946984574938,0.074219026312182,0.0773097387260595,0.0802677008866866,0.0830936424341389,0.0857890193062705,0.0883563553882152,0.0907992649239089,0.093122299716532,0.0953307193723203,0.0974302467114481,0.0994268436052443,0.101326523944315,0.103135208636354,0.104858620729666,0.106502215375092,0.108071138117297,0.109570205037346,0.111003898943316,0.11237637674367,0.113691484118184,0.114952774507114,0.116163530219094,0.117326784097999,0.118445340694868,0.119521796278246,0.120558557304391,0.121557857175944,0.12252177126164,0.123452230244464,0.124351031924208,0.125219851631723,0.126060251424707,0.126873688234178,0.127661521121388,0.128425017790594,0.129165360485807,0.129883651381534,0.130580917559583,0.131258115647182,0.131916136176336,0.132555807710826,0.133177900775678,0.133783131614214,0.134372165789877,0.134945621643669,0.135504073613436,0.136048055417431,0.136578063102476,0.137094557955273,0.137597969274839,0.13808869700378,0.138567114216389,0.139033569462182,0.139488388964255,0.13993187867282,0.140364326175221,0.140786002464759,0.141197163571593,0.141598052059804,0.141988898395539,0.142369922191745,0.142741333335512,0.143103333004534,0.143456114579337,0.14379986445825,0.144134762781984,0.144460984074847,0.14477869780932,0.145088068900698,0.145389258138201,0.145682422558634,0.145967715768474,0.14624528821981,0.146515287445296,0.146777858256862,0.147033142912546,0.147281281255569
0.172568525067775,0.191095517294998,0.211655173571114,0.233962813009027,0.257178565728632,0.279646396531309,0.298786347483286,0.311445597120138,0.314912225763414,0.308237877249736,0.29291021382872,0.272228185426137,0.249885566319477,0.228826603284179,0.210875294689123,0.19691776157011,0.187208214831019,0.181494432838017,0.178862379511254,0.177559034762558,0.175469947409095,0.17135561115239,0.165493567059149,0.158970046367619,0.152736864554596,0.147292507273071,0.142786691513176,0.139191237869904,0.13641132835443,0.134338605063571,0.13287064920562,0.131913998566757,0.131379206606568,0.131171537215246,0.131179080896521,0.131260558070284,0.131237389739606,0.130897642653065,0.130019972716344,0.128418783739678,0.125996447189647,0.122775129378132,0.118886566917102,0.114523971019909,0.109882754982722,0.105116373753398,0.100317926421788,0.0955257294643499,0.0907468398458362,0.0859909500913651,0.0813071405038006,0.076818239662388,0.0727353646446298,0.0692939318211616,0.0665694004965927,0.0643312271256626,0.0621653222291982,0.0597159972460266,0.0567466748303538,0.0530322619323775,0.0482316337724034,0.0417978130347041,0.0329456594148609,0.0208236500376466,0.00540774416453238,-0.0102184018500079,-0.0185878091411764,-0.0145081395503623,-0.00224845511496718,0.0110608050702057,0.0221702611385783,0.0308349557290051,0.037701897684836,0.043414265831863,0.0484182803300215,0.0529829655561089,0.0572566960311947,0.061315135665452,0.065193729955394,0.0689074303036368,0.0724617628319957,0.0758586448279619,0.0790992560693944,0.0821853475052288,0.0851197457861204,0.0879064482850345,0.090550512327835,0.0930578480954667,0.0954349778001797,0.097688798238921,0.0998263680077971,0.101854729950141,0.103780772097945,0.105611125651848,0.107352095837113,0.109009620234025,0.110589248932111,0.112096141210908,0.113535074118154,0.114910459104141,0.116226363656742,0.117486535598444,0.118694428322854,0.119853225755844,0.120965866230293,0.122035064774691,0.123063333548819,0.124053000328359,0.125006225057527,0.125925014566561,0.126811235598057,0.127666626311252,0.128492806442161,0.129291286295233,0.130063474732435,0.130810686311537,0.13153414770861,0.132235003542321,0.132914321700171,0.133573098250369,0.134212262007922,0.134832678810075,0.13543515554438,0.136020443962629,0.136589244305599,0.137142208756494,0.137679944735813,0.138203018045861,0.138711955870235,0.13920724963128,0.139689357707088,0.140158708008817,0.140615700418702,0.141060709089228,0.141494084604209,0.141916156002971,0.142327232669557,0.142727606089373,0.143117551476524,0.143497329275605,0.143867186542403,0.144227358208385,0.144578068234364,0.144919530659055,0.145251950548427,0.14557552485201,0.145890443172326,0.146196888453663,0.146495037596279,0.146785062002076,0.14706712805755,0.1473413975596,0.147608028089569,0.147867173340566,0.148118983402835,0.148363605011656,0.148601181761893,0.148831854293056
0.184657177194129,0.206725136487502,0.232056817655802,0.260655581662308,0.291802154172711,0.323487994745793,0.351914239481653,0.37171276287115,0.377667568408029,0.367568885955162,0.343918247204386,0.312601972253892,0.279819263293668,0.249950991115955,0.225246306784596,0.206496330904518,0.193759288269934,0.186669848457303,0.184166175276582,0.183924893800614,0.182761745079503,0.178691068006003,0.172167121123364,0.164824270600792,0.15794319550539,0.152096424865246,0.147399601680952,0.143772813915332,0.141081491783283,0.139193665122329,0.137996787633605,0.137397237376376,0.137311853705945,0.1376542033328,0.138315826655143,0.139143402747407,0.139917119730825,0.140343741628745,0.140085264177761,0.1388369961729,0.136434632777492,0.132927461896152,0.128559525055729,0.123668523827128,0.118570829329233,0.113487905191426,0.108520823008297,0.103656323426044,0.0987936114702193,0.0937878930571836,0.0885143474299508,0.0829873549944582,0.0775714394446363,0.0730848277099856,0.0702335294186767,0.0686568733242645,0.0672108301587724,0.065099709548784,0.0621250398574593,0.0582737449423405,0.0534014065011936,0.0471403317318446,0.0389590879483073,0.0284303359332396,0.0159774688821368,0.00417193448998177,-0.00220942876553309,-0.000235639678853983,0.00764249677337969,0.0169952066433239,0.0253855115456776,0.0323696324211176,0.0382772919493395,0.0435200732773608,0.0483845659661124,0.0530234177442288,0.0574978844808069,0.0618200589761284,0.0659817248220043,0.0699703133345198,0.0737760025467447,0.0773938373375975,0.080823541872979,0.0840685316703027,0.0871348336547424,0.0900301743334571,0.092763286277681,0.0953434051618218,0.0977799126452146,0.100082085753018,0.102258923610716,0.104319031167004,0.106270545643977,0.108121095347317,0.109877782928262,0.111547186829836,0.113135375853502,0.114647932749632,0.116089983556924,0.117466230126929,0.11878098388145,0.120038199367183,0.121241506598266,0.122394241520364,0.123499474198389,0.124560034534409,0.125578535472676,0.126557393755336,0.12749884836384,0.128404976825336,0.129277709586948,0.130118842669066,0.130930048806349,0.131712887274851,0.132468812589099,0.133199182235219,0.13390526358746,0.134588240136571,0.135249217140201,0.13588922678836,0.136509232961449,0.137110135644266,0.137692775047318,0.138257935476069,0.13880634897993,0.139338698805342,0.139855622671231,0.140357715880379,0.140845534276412,0.141319597053348,0.141780389422605,0.142228365140947,0.142663948901982,0.143087538593403,0.143499507422032,0.143900205908726,0.14428996375565,0.144669091588608,0.145037882577653,0.145396613939644,0.145745548326736,0.146084935105349,0.14641501153034,0.146736003819499,0.147048128133652,0.147351591467814,0.147646592458916,0.147933322115661,0.148211964476003,0.148482697197681,0.148745692087074,0.149001115571494,0.149249129119837,0.149489889616229,0.14972354969115,0.149950258014148,0.150170159552095,0.150383395796597
0.195955069528464,0.221691349054547,0.252215072429175,0.288069614266424,0.329006754655707,0.372977741458732,0.41483698568543,0.445891102428822,0.456451743665578,0.441722044530989,0.405959607464564,0.359664994814515,0.313026771958047,0.27219922082339,0.239537937376544,0.215292660416509,0.198974587015117,0.189912922279285,0.186915390874864,0.187301419927967,0.187010053784444,0.183296470220059,0.176634381694331,0.169023430026646,0.161957205972624,0.156051207035231,0.151402213044673,0.147905643129348,0.145411589786092,0.143783434173391,0.142913439361235,0.142721182743813,0.143144031864741,0.144120908601668,0.145566880098994,0.147335584129797,0.149171801041751,0.150673030887175,0.15130618290733,0.150534877431916,0.148045869864376,0.143929157947043,0.13864200265767,0.132780585596178,0.126853302756796,0.121177442998669,0.115867027543701,0.11084388681412,0.105855454166003,0.100508292945144,0.0943200462991782,0.0868899265092233,0.0785332262063247,0.0713762502691322,0.0683975060789266,0.0690410764894023,0.0697614322105993,0.0687336646944043,0.0661156103074609,0.0624272003835933,0.0578566140274919,0.0522453291309644,0.0452997409105247,0.0369214004843157,0.0277013203480529,0.0193999626203745,0.0145296611894248,0.014439495682135,0.01803194646231,0.0231449095464207,0.0283657112898781,0.0333000510306725,0.0380446030746673,0.0427660885084606,0.0475447908792999,0.052368596612391,0.0571744295473877,0.0618874754973298,0.0664440928337062,0.0708001757526107,0.0749308590805653,0.0788265724329547,0.0824884219538624,0.08592423354518,0.0891456247379541,0.0921660272837281,0.0949994391600562,0.097659681973975,0.100159986228291,0.102512779678327,0.104729597279507,0.10682106200644,0.108796905961594,0.110666013657193,0.112436476789573,0.114115654163453,0.115710232939143,0.117226288850666,0.118669343934843,0.120044420875921,0.121356093446978,0.122608532792246,0.12380554948351,0.124950631420564,0.126046977743543,0.127097528992062,0.128104993789153,0.129071872351677,0.130000477137754,0.130892950938994,0.131751282714409,0.132577321445847,0.133372788273989,0.134139287150831,0.134878314220674,0.135591266117419,0.136279447342865,0.136944076868536,0.137586294083121,0.138207164188974,0.138807683134289,0.139388782152734,0.139951331969293,0.140496146719902,0.141023987622881,0.141535566432208,0.142031548695967,0.142512556838117,0.142979173077177,0.14343194219229,0.14387137414447,0.14429794655897,0.144712107073406,0.145114275555398,0.14550484619295,0.145884189460596,0.146252653964258,0.146610568167892,0.146958242005195,0.147295968379903,0.147624024558521,0.147942673459516,0.148252164843346,0.148552736407902,0.148844614794053,0.149128016506206,0.149403148752786,0.149670210211621,0.149929391725205,0.150180876930713,0.150424842829525,0.150661460301018,0.150890894564987,0.151113305597138,0.151328848501643,0.151537673844733,0.151739927952939,0.151935753179415
0.20565433377389,0.234772505690584,0.270303155926674,0.313550272071211,0.365145681137132,0.423564123467886,0.482621011486054,0.529407535834225,0.54727383467461,0.526809907317696,0.47504340068202,0.40982599194906,0.346885188080222,0.294098057526441,0.253308570151763,0.223678617707332,0.203791892665838,0.19238769002389,0.187997978772338,0.18784306896029,0.18769876462312,0.184496463060014,0.178412621674556,0.171311552580185,0.164667355904935,0.159117245702183,0.154785072544523,0.151589298537099,0.149399452476131,0.148097676823715,0.147597648268828,0.14784635592026,0.148817712330153,0.150498124329244,0.152858137203285,0.155799400259904,0.15906674834617,0.162137264355455,0.164166545059981,0.164160553431271,0.16145995651881,0.156216650628352,0.149325203953866,0.141858043082063,0.13460633809866,0.127996729453494,0.122171257596831,0.117011508433218,0.112105472415858,0.106741515814514,0.0998896005846857,0.0901915173814374,0.0768946242085193,0.0638052497264061,0.0604295531995744,0.0661288473165622,0.0706960740260847,0.0709954425334394,0.0686278272865291,0.0651382075951132,0.06108822807558,0.0563973119076033,0.0508197371349319,0.0443310648887183,0.0374124944880394,0.031129523354563,0.0267358030887206,0.0248627685539544,0.0251376168619462,0.0267443554867324,0.0291440622080299,0.0322120229570564,0.0359843853246491,0.0404343607629931,0.0454157738826404,0.0507125425516191,0.0561069114706447,0.0614227892769668,0.0665394619449202,0.0713866701993322,0.0759324098698801,0.0801703258343369,0.0841095490918435,0.0877675137533362,0.0911653155876233,0.0943249295136035,0.097267667746602,0.100013412865505,0.102580308124509,0.104984702175875,0.107241225176425,0.109362925008522,0.111361424250974,0.113247077386895,0.115029118441017,0.116715795069131,0.118314488141164,0.119831817315125,0.121273733719995,0.12264560106129,0.123952266457052,0.125198122220247,0.126387159684151,0.127523016046332,0.128609015095354,0.129648202584959,0.130643376933227,0.131597115847507,0.132511799408016,0.13338963008267,0.134232650091384,0.135042756489131,0.13582171429282,0.136571167936743,0.13729265130507,0.137987596556799,0.138657341929102,0.13930313867824,0.139926157293645,0.140527493099712,0.141108171341324,0.141669151833058,0.142211333237936,0.142735557029686,0.143242611182112,0.143733233620664,0.144208115464133,0.144667904078366,0.145113205959336,0.145544589458814,0.145962587363188,0.146367699333392,0.146760394212448,0.147141112205733,0.147510266938312,0.147868247393145,0.148215419733632,0.148552129013909,0.14887870078027,0.149195442567186,0.149502645291549,0.14980058454894,0.150089521815885,0.150369705562205,0.150641372277738,0.150904747417787,0.151160046271751,0.151407474759342,0.151647230158932,0.151879501772386,0.15210447153077,0.152322314545144,0.152533199606601,0.152737289639464,0.152934742111507,0.153125709404749,0.15331033915032,0.153488774530554
0.212915753089779,0.244602464190216,0.28407790471182,0.333420750620358,0.394312561222382,0.466211435957722,0.542585398685207,0.6065073093032,0.633107403966991,0.606852147810257,0.538221964154874,0.454065941252032,0.375951926281183,0.312834142766343,0.265478226656689,0.231697131796552,0.209023652700878,0.195460753969753,0.189111377979406,0.187255157238603,0.186224604088348,0.183262640362845,0.178117314818638,0.172065452312443,0.166304496762992,0.161437927752374,0.157637864599925,0.154878234312287,0.153073504617435,0.152141983589147,0.152030952252479,0.152725432235731,0.154249387714324,0.156659499284635,0.160023156906214,0.164359785066081,0.169508172482463,0.174885370760877,0.179212943828445,0.180606652790313,0.177570745107878,0.170339993930126,0.160774461864204,0.15083382353632,0.141635261349152,0.133631885749739,0.12701491239797,0.12175787774379,0.117388110526144,0.112890395410317,0.1067330374034,0.0964796801568866,0.0790582079486148,0.0581129461642456,0.053596364494026,0.0651826051387088,0.0723682841945827,0.0723469107910433,0.0692693916432168,0.0657689176545908,0.0624610468776612,0.0589639886487836,0.0547785718627245,0.0497318821461183,0.0440951973198616,0.0384871462715999,0.033587840663313,0.0298093047093024,0.0272318737602923,0.0258700892506942,0.0258978996335997,0.0275540030516626,0.0308928765551721,0.035673353822905,0.0414495193740168,0.0477369414490336,0.0541330503432922,0.060360249560089,0.0662565642444768,0.071746008510817,0.0768082852499672,0.0814552767057795,0.0857151907639211,0.0896228232639928,0.0932140348418244,0.0965228907076454,0.0995803797269841,0.102414016920154,0.10504790678294,0.107503022232867,0.109797563350356,0.111947324921996,0.113966038878226,0.115865678102936,0.117656718729282,0.119348363155705,0.120948728125361,0.122465002757629,0.123903581213857,0.125270174159857,0.12656990258224,0.127807376932371,0.128986764055872,0.130111843929126,0.131186057864519,0.132212549553466,0.13319420007979,0.134133657844983,0.13503336419227,0.135895575390531,0.136722381535724,0.137515722842238,0.138277403725118,0.139009105014279,0.139712394590892,0.140388736692734,0.141039500098039,0.141665965365381,0.142269331279378,0.142850720628269,0.14341118541873,0.143951711615722,0.144473223479878,0.144976587562212,0.145462616404715,0.145932071986461,0.146385668946887,0.146824077611732,0.147247926841785,0.147657806720435,0.148054271092563,0.148437839964799,0.148809001775041,0.149168215537571,0.149515912869143,0.149852499900447,0.150178359076992,0.150493850853025,0.150799315282022,0.151095073507188,0.151381429155457,0.151658669638544,0.151927067364669,0.152186880864791,0.152438355837067,0.15268172611362,0.152917214553463,0.153145033865705,0.153365387367003,0.15357846967729,0.153784467357699,0.153983559494587,0.154175918233392,0.154361709266019,0.154541092275226,0.154714221339414,0.15488124530099,0.155042308101387
0.217055738220665,0.250003149141774,0.291464815836702,0.343971186508154,0.409866360365424,0.489341831319841,0.575937362242747,0.650487237691673,0.682789774144441,0.653103615571559,0.574358984706669,0.479377584017653,0.39310955372858,0.324777452455344,0.274282741172699,0.238550193610231,0.214418653099974,0.199343247018745,0.191089461019967,0.187128966259561,0.184613939560251,0.181418924312442,0.177029525977783,0.172070289474644,0.167325323493762,0.163277589036434,0.160115363722356,0.157862801223267,0.156482543185448,0.155933274466772,0.156199111303113,0.157305975754868,0.15933312486769,0.162421544887722,0.16677212248216,0.17260726967201,0.180025593074294,0.18860754917024,0.196667148417884,0.200744338901633,0.19732314968478,0.186672130926414,0.172877679679155,0.159500546636794,0.14774745906299,0.13772790103161,0.129680810797661,0.124068727223477,0.120753660858957,0.118463630658131,0.115454699345038,0.109340798869817,0.0958717382331375,0.0755478886093059,0.0681432139854314,0.0748073522494341,0.0764697589172831,0.0719757476639269,0.066573557653711,0.0630550305467232,0.0611655171231527,0.0594898675363811,0.0569217803064854,0.0530369779461961,0.0479334112705285,0.0419826533916434,0.0356239807896159,0.0292800777191411,0.0234667194301783,0.018971403933141,0.0167699798343635,0.0175723717811518,0.0213910220928129,0.0275588872097299,0.035115914188087,0.0431899070076707,0.0511697963840654,0.0587062708655861,0.0656419575886547,0.0719375193892204,0.0776169246711054,0.0827330753624953,0.0873483724757449,0.0915246886912584,0.0953187713445132,0.0987805854043013,0.101953147422332,0.104873047384673,0.107571231859142,0.110073833057398,0.112402943514384,0.114577296879906,0.116612846078623,0.118523244567742,0.120320242279839,0.122014009313623,0.12361339982829,0.125126167128375,0.126559139221715,0.127918362492928,0.129209219685015,0.130436527159122,0.131604615400643,0.132717395933548,0.133778417163475,0.134790911163384,0.135757833016839,0.13668189402034,0.137565589799085,0.138411224195514,0.139220929634941,0.139996684548836,0.140740328336632,0.141453574266049,0.142138020645814,0.142795160549971,0.143426390327771,0.144033017095086,0.144616265371398,0.145177282999551,0.145717146462539,0.146236865692371,0.146737388449591,0.147219604338265,0.147684348509447,0.14813240509645,0.148564510416962,0.148981355970255,0.149383591252208,0.149771826406166,0.15014663472417,0.150508555009936,0.150858093812815,0.151195727540191,0.151521904454297,0.151837046558592,0.152141551378102,0.15243579363757,0.152720126841069,0.152994884756527,0.153260382808484,0.153516919382458,0.153764777044322,0.15400422367808,0.154235513545598,0.154458888271784,0.154674577758859,0.154882801033339,0.155083767029357,0.155277675311943,0.155464716743861,0.155645074099569,0.155818922629663,0.155986430579288,0.156147759663667,0.156303065503952,0.156452498026344,0.156596201827372
0.217740225073865,0.25036968367777,0.291341799675463,0.343074743844449,0.407736025258877,0.485295134817814,0.569202543240336,0.640829356227535,0.67153318793949,0.643049387531284,0.567778444183446,0.476672367944083,0.393479898553581,0.327226268483837,0.278005395083995,0.242912711575742,0.218813907491295,0.203077048346036,0.193442343666672,0.187714145786991,0.183783277187532,0.180114344686661,0.176134566176767,0.172017510806667,0.168169623146598,0.164905443786009,0.162380875808231,0.160641251133765,0.159682530317227,0.159495579632455,0.160095026725811,0.161540796236634,0.163959347421766,0.167568998412297,0.172708309989177,0.17984859123369,0.189509995636056,0.201820674462951,0.21515384695204,0.223931230374979,0.220329214052581,0.204247901426324,0.184599551724392,0.167418430325665,0.153028256366036,0.140342492657488,0.129521748260006,0.122332798946212,0.120251456864779,0.121727572558723,0.124527915921514,0.128043900670464,0.129148645409761,0.120131313929631,0.104693888695986,0.0924880584954924,0.0795715171906728,0.0659888231436683,0.0570649892489734,0.0548431596643635,0.0563194147847921,0.0578239685228792,0.0574413752469207,0.0546619535972344,0.0495817194799417,0.0424553329302519,0.0335732345569379,0.0234107289628891,0.0130071160867888,0.0042554465352711,-0.00052927816578241,0.000131702915322718,0.00594157246043525,0.0152260687250485,0.0260591783459114,0.0370149713731573,0.0473014485299448,0.0565928210821467,0.0648296035970475,0.0720787217360248,0.0784544673214174,0.0840793865571765,0.0890672499847331,0.0935170935864853,0.0975123804826625,0.101122291858966,0.104403721947111,0.107403337873756,0.110159445622233,0.112703580965542,0.115061822840487,0.117255857934169,0.119303834587617,0.121221043765658,0.123020460662171,0.124713175237018,0.126308734823736,0.127815417382583,0.129240450134369,0.130590185176642,0.131870241172786,0.13308561821831,0.134240791430513,0.135339787593055,0.136386248243638,0.137383481862444,0.138334507253573,0.139242089774196,0.140108771727024,0.140936897968122,0.141728637576436,0.142486002270175,0.143210862127813,0.143904959070398,0.144569918480798,0.145207259270034,0.145818402647778,0.146404679810135,0.146967338722116,0.147507550141929,0.148026413009506,0.148524959300472,0.149004158429499,0.149464921271989,0.149908103860841,0.150334510804613,0.150744898464828,0.151139977922968,0.151520417761784,0.151886846680754,0.152239855961541,0.152580001796135,0.152907807487925,0.153223765533858,0.153528339594429,0.153821966357035,0.15410505729742,0.154378000343281,0.154641161443754,0.15489488604818,0.155139500497392,0.155375313330741,0.155602616511967,0.155821686577106,0.15603278570763,0.156236162732002,0.156432054058969,0.156620684545828,0.156802268304974,0.156977009452062,0.157145102798951,0.157306734494808,0.157462082618393,0.157611317724757,0.157754603349248,0.157892096471838,0.158023947944537,0.158150302884546
0.215094699642968,0.245903548123724,0.284051377659087,0.33134624207629,0.389072017760328,0.456248897965214,0.526320455900039,0.58377651766535,0.607167255889807,0.583932567692633,0.523400114917758,0.448460342008312,0.3779131644019,0.320062788785142,0.275981378427778,0.243810657064206,0.221096922287854,0.205586094216095,0.195309311263113,0.188494814810004,0.183605472815582,0.179540613376501,0.175774711720174,0.172246818899087,0.169105478011905,0.166511236522204,0.164562166894206,0.163297547433112,0.162726803311698,0.162858634264492,0.163725349107747,0.165405556815181,0.1680507528059,0.17192210165005,0.177442968792065,0.185262948945412,0.196275581050177,0.211304360015509,0.229463727736959,0.24377597224421,0.240497280901797,0.218201440577007,0.193238207102548,0.174025225888376,0.158326505185363,0.142954484265656,0.127816405862685,0.11677876524691,0.115341429218409,0.121769505875576,0.131578179276666,0.147236722392552,0.168541336824811,0.171938965035448,0.141956195704803,0.106708203358551,0.0748045023313837,0.0479492953763561,0.0356937988026114,0.0390321273163943,0.0478139207978874,0.0545277591891635,0.0570204655033895,0.0553469285221144,0.0499005298673461,0.0408676727426762,0.028267704178877,0.0124256665559155,-0.00507700386235188,-0.0205164199086212,-0.028890097114654,-0.0272160321485243,-0.0168384986080971,-0.00174850358571133,0.0144068204371361,0.0295486556281528,0.0428878353994979,0.0543298121367541,0.0640630624012097,0.0723527258327903,0.0794555463767126,0.0855920897816809,0.0909425539697026,0.0956509449349838,0.0998313584596879,0.103574044268939,0.106950545986956,0.110017828053111,0.112821508049504,0.115398360120181,0.117778245415411,0.1199855995721,0.122040580237595,0.123959954361116,0.125757786306859,0.127445973346039,0.129034663990466,0.130532586189077,0.131947305997711,0.133285432462936,0.134552780759188,0.135754502802575,0.136895192420971,0.137978970526941,0.139009554495468,0.13999031499922,0.140924322829416,0.14181438767631,0.142663090418947,0.143472810147653,0.144245746891268,0.144983940826246,0.145689288592796,0.14636355722424,0.147008396101392,0.147625347269003,0.14821585439098,0.148781270572401,0.149322865236653,0.14984183021339,0.150339285166139,0.15081628246597,0.151273811599175,0.151712803181289,0.15213413263696,0.152538623594334,0.152927051033634,0.153300144222208,0.153658589462169,0.154003032671614,0.154334081816444,0.15465230920629,0.15495825366556,0.15525242258833,0.155535293884338,0.155807317821888,0.156068918772653,0.156320496862579,0.156562429532627,0.156795073012719,0.157018763712055,0.157233819528797,0.15744054108211,0.157639212869406,0.157830104351795,0.158013470970649,0.158189555098214,0.158358586925326,0.158520785289165,0.158676358444065,0.158825504778406,0.158968413480485,0.159105265156334,0.159236232402351,0.159361480335491,0.159481167083828,0.159595444240015,0.159704457280247
0.209669424442855,0.237543253771339,0.271253626451608,0.311812479831127,0.359479849391567,0.412442044178505,0.464818435818402,0.505430709845199,0.520860783759185,0.504133413515403,0.46115402159346,0.406171639754607,0.352057851081175,0.30568547792147,0.268940432908656,0.241167399189571,0.220846969972718,0.206350349133079,0.196172636083531,0.18898328216434,0.18367780742262,0.179462032741951,0.175892511577853,0.17281340804478,0.170228586988209,0.168189510987105,0.166737790576918,0.165893005491418,0.165662740212807,0.166059386616263,0.167118227470928,0.168917393162235,0.171603344397705,0.1754273591142,0.180799058136952,0.188356185597603,0.199005284050116,0.213681111401172,0.231842641996402,0.246810550858308,0.243562333808162,0.220065845088746,0.195911887376102,0.179503325397799,0.165486232010648,0.148838419363456,0.130255326569131,0.116022441763126,0.114345981172113,0.122879392369803,0.135669548865828,0.15709001800398,0.188500212503194,0.197059706589587,0.159367012353904,0.109856835353528,0.0604365938124229,0.0172599544426977,0.00340269677888405,0.0185929775072946,0.0384815062635702,0.0514766201946466,0.056861219986208,0.0560397607476915,0.049886748995364,0.0384204598164619,0.0210480769548513,-0.00262164516298224,-0.030827502174241,-0.0570087207323901,-0.0707396181259248,-0.0659813224700098,-0.0469465772322274,-0.0224463277623492,0.00128065235409203,0.021758110713084,0.0386552944563703,0.0524300379819853,0.0636949704282705,0.0729999525971385,0.0807840708262686,0.08738332293201,0.0930513180398951,0.0979793155692399,0.102312291128311,0.106160996875862,0.109610798883514,0.112728112539275,0.115565098800115,0.118163111729121,0.120555248235246,0.122768248443159,0.124823922659836,0.126740230348052,0.128532101263953,0.13021206418185,0.131790731109044,0.133277172348771,0.134679208690739,0.136003640375572,0.137256427592596,0.138442833646438,0.139567539226031,0.140634734187087,0.141648191740302,0.142611328793766,0.143527255334817,0.144398815083265,0.145228619152137,0.146019074074602,0.146772405267166,0.147490676777485,0.148175807993843,0.148829587860186,0.149453687036133,0.150049668359164,0.150618995900465,0.15116304285345,0.151683098451375,0.152180374075837,0.152656008689602,0.153111073703812,0.153546577370197,0.153963468773016,0.154362641481938,0.154744936916108,0.155111147460355,0.15546201936691,0.155798255469647,0.156120517732714,0.156429429651187,0.156725578517859,0.157009517567632,0.15728176800865,0.157542820947643,0.157793139215602,0.158033159098776,0.158263291979394,0.158483925889705,0.158695426982738,0.158898140922816,0.159092394198637,0.159278495361757,0.159456736193127,0.159627392800401,0.159790726648715,0.159946985527612,0.160096404456896,0.160239206534094,0.16037560372632,0.160505797609256,0.160629980055983,0.160748333878384,0.160861033423739,0.160968245129159,0.161070128036369,0.161166834269349,0.161258509477184
0.202277967517622,0.226636030621099,0.255231339057601,0.288395729187333,0.325675297878971,0.364998542413544,0.401750794170868,0.428720682286828,0.438384442450604,0.427310281273306,0.398914989733292,0.361284583605248,0.322442894592099,0.287488445595952,0.25851073205716,0.235692984792317,0.218329555182883,0.205420088354386,0.195941498901235,0.188963053561678,0.183711111886312,0.179615183496078,0.176319569646402,0.173647300324454,0.171534391557035,0.169967740415076,0.168946812418576,0.168469500798643,0.168533349576566,0.169144103224851,0.170327598630654,0.172144454892227,0.174709056743268,0.178215020259523,0.18296732701496,0.189409660123995,0.198088404596106,0.209333105666323,0.222030906115336,0.230902234287284,0.226757527562351,0.209883425608444,0.194427527183524,0.185936740470257,0.176489629466056,0.160059207750939,0.14073984601499,0.126847717960269,0.123477259960171,0.127761289472243,0.136270797160608,0.151444028110593,0.17152302161615,0.175022719970274,0.147461835160256,0.103348748345022,0.0501535891788445,-0.000507165828859568,-0.0144105977106255,0.00870536148205647,0.0352185393549951,0.0516066354969922,0.0583623788970471,0.057691634043995,0.0506029062978794,0.0366866831612473,0.0143279699464856,-0.0183900158436239,-0.0605316043450935,-0.102081761366055,-0.123206715774767,-0.112400181838104,-0.080101488283583,-0.0431864541638379,-0.0106843557309387,0.0153621520023597,0.0356832353176957,0.051565689238527,0.0641465073513117,0.0742875498433571,0.082611802339901,0.0895648764385109,0.0954669784267663,0.100550702072463,0.104987218003199,0.10890419925056,0.112398127876579,0.115542828595971,0.118395462236055,0.121000792041876,0.123394260030672,0.125604231755209,0.127653651751214,0.129561275940557,0.131342596844691,0.133010543497211,0.134576014686827,0.136048287980562,0.137435335552009,0.138744069667857,0.139980534777256,0.1411500588378,0.142257373344941,0.143306709191381,0.144301873746263,0.145246313250058,0.146143163653762,0.146995292305581,0.147805332342254,0.14857571122946,0.149308674582506,0.15000630615936,0.150670544734408,0.15130319841937,0.151905956887143,0.15248040186741,0.153028016214154,0.153550191790148,0.154048236369405,0.154523379722645,0.154976779021603,0.155409523674044,0.155822639681501,0.156217093595426,0.156593796133861,0.156953605509493,0.157297330510675,0.157625733369175,0.157939532442135,0.158239404730448,0.158525988251446,0.158799884280364,0.159061659472126,0.159311847872899,0.159550952828873,0.159779448798547,0.159997783073538,0.160206377412223,0.160405629589888,0.160595914868587,0.160777587389681,0.160950981491735,0.161116412956394,0.161274180184746,0.161424565306671,0.16156783522565,0.161704242601541,0.161834026773784,0.161957414627631,0.162074621405842,0.162185851468458,0.162291299003119,0.162391148688505,0.162485576313274,0.162574749353069,0.162658827507895,0.162737963202209,0.162812302050043
0.193791793831087,0.214547349307621,0.238135169185982,0.264453975448544,0.292740228633909,0.321133796669753,0.346370725801821,0.36410562394931,0.370328739515701,0.363439699012092,0.345358853174976,0.320527091021235,0.293714376458947,0.268413293207558,0.246465811830317,0.228444980112254,0.214184105604841,0.203173191786168,0.194792242470592,0.18843630136972,0.183584080561194,0.179834335297326,0.176913903552896,0.174659447341296,0.172983691340132,0.171841462722579,0.171205923645374,0.171057148175814,0.171380113420194,0.172168311913066,0.173430473118781,0.175199363722414,0.177542345727772,0.180572547542501,0.184455161062558,0.189389714584201,0.195512239579738,0.202583022576306,0.209274683875527,0.212408023418218,0.208544155675418,0.199725629425947,0.194248134249961,0.194730244578074,0.190028542292029,0.173156528010832,0.15324819340332,0.139089564776286,0.132383054435651,0.130713062599194,0.132561524269458,0.138550232729769,0.145969160869229,0.144982926610868,0.128519168445839,0.0983758161735573,0.0580899998786564,0.0192625507196635,0.00647442277126564,0.0219727644025054,0.0428775367270011,0.0567384169344884,0.0623557940829322,0.0609574409305578,0.0530071849253235,0.0374734098009504,0.0116422655693262,-0.0282253352647697,-0.0829089594676115,-0.139755054844856,-0.168152227697458,-0.150211275676122,-0.104690954212221,-0.0569162178060423,-0.0175310183599036,0.0125361124806629,0.0351805473321789,0.0524249767176741,0.0658203187221769,0.0764571360261173,0.0850867688863675,0.0922287861708349,0.0982472035633408,0.103401224951678,0.107878526333286,0.111817188016718,0.115320333989431,0.118466062673056,0.121314298176783,0.123911594223879,0.126294552944572,0.128492290344442,0.130528235116964,0.132421454585078,0.134187641040475,0.13583985157518,0.137389067332851,0.138844619415621,0.140214515622231,0.141505692946114,0.142724214142355,0.143875421891237,0.144964060607766,0.145994373401769,0.146970179822347,0.147894938639288,0.148771798890668,0.149603641664154,0.150393114510566,0.151142659960877,0.151854539295253,0.152530852467656,0.153173554901996,0.153784471731373,0.15436530993954,0.154917668775729,0.155443048744359,0.155942859415622,0.156418426258355,0.156870996660498,0.157301745272943,0.157711778788542,0.158102140248103,0.158473812948873,0.158827724017427,0.159164747697574,0.159485708394776,0.159791383510645,0.160082506094911,0.16035976733701,0.160623818915078,0.160875275216795,0.161114715443604,0.161342685607664,0.161559700428995,0.161766245139034,0.161962777195544,0.162149727913122,0.162327504012882,0.162496489094439,0.162657045032962,0.162809513303928,0.162954216237978,0.16309145820825,0.163221526752517,0.163344693632412,0.163461215832049,0.163571336498391,0.163675285825666,0.163773281886209,0.163865531410066,0.16395223051575,0.164033565394466,0.164109712950162,0.164180841397699,0.164247110821397,0.1643086736962,0.164365675373571
0.184975893825345,0.20238765129192,0.221546765076443,0.242147151827061,0.26339941939695,0.283844692285725,0.301319771054647,0.313289485713556,0.317642965749191,0.313645955948731,0.302384920626884,0.286306464040485,0.268205667316684,0.250367916877923,0.234226940447454,0.220439210324422,0.209122603711337,0.20008837181247,0.193008360362031,0.187520544451536,0.183291333580436,0.180048388812398,0.177590977452111,0.175783280079356,0.174537968727614,0.17379811566323,0.173523135484377,0.173680751307166,0.1742442628335,0.175193424666653,0.176517406931654,0.178218701142481,0.180316723047139,0.182848488513944,0.185859746425164,0.189370964290466,0.193287086193201,0.197211518133384,0.200200070284037,0.200823605501978,0.198338708391404,0.194796792163983,0.194915230382516,0.199325819791683,0.196520064932179,0.18022011180479,0.160849394110606,0.145756445746364,0.135309916954153,0.127863229270282,0.123486328116925,0.123871665431423,0.1271822293275,0.126863182837639,0.117952364304017,0.0998430492460434,0.0752249392755073,0.0520408017384395,0.0419868766000908,0.0471235817313904,0.0577531965691209,0.0657596693507052,0.0685599731599673,0.0659469164531823,0.0576500191681497,0.0421689625484696,0.0162134436581478,-0.0247843498432248,-0.0823834269155196,-0.143274656039676,-0.173700902642445,-0.154242288043396,-0.10605240881386,-0.0562744587990089,-0.0156968127708528,0.0150387444053173,0.0380516288751696,0.0554935564602423,0.0689871053770237,0.07966377677551,0.0882991585918511,0.0954275532965039,0.101422019546931,0.106547274648344,0.110994271449898,0.114902940355505,0.118377352055352,0.121495992258094,0.124318839761725,0.126892318579968,0.129252811524829,0.131429184208945,0.133444618079,0.135317954636611,0.13706468994776,0.138697716532779,0.140227881236259,0.141664408040018,0.143015221062428,0.144287193293027,0.145486339698098,0.146617968367426,0.147686799784916,0.148697061701294,0.149652565188322,0.15055676606365,0.151412814853749,0.152223597707392,0.15299177011198,0.153719784846504,0.154409915290334,0.155064274968666,0.155684834033371,0.156273433237706,0.156831795854213,0.157361537899405,0.157864176960982,0.158341139869156,0.158793769409806,0.159223330241933,0.15963101415277,0.160017944760326,0.160385181753506,0.160733724743829,0.161064516789461,0.161378447641178,0.16167635675079,0.161959036074938,0.162227232701084,0.162481651317209,0.16272295654277,0.162951775134878,0.163168698081074,0.16337428258771,0.163569053971354,0.163753507459116,0.16392810990282,0.164093301411078,0.164249496902694,0.164397087584447,0.164536442355846,0.164667909143411,0.164791816166682,0.164908473138246,0.165018172399948,0.165121189997403,0.165217786695022,0.165308208933702,0.165392689733381,0.165471449542649,0.165544697037666,0.16561262987259,0.165675435383733,0.165733291249692,0.1657863661096,0.165834820141683,0.165878805604247,0.165918467341136
0.176404706743763,0.19091114153099,0.206401350739209,0.222515317015582,0.238572844418833,0.253514513262087,0.265954957166165,0.274426895862783,0.277808956075301,0.275765232328258,0.268925719336857,0.258667978343811,0.246639785048791,0.234307393740588,0.222714096312904,0.212451685552777,0.20375152898151,0.196606614725524,0.190877731575365,0.186370537793695,0.182885591028629,0.18024684977767,0.178313626069699,0.176980644808216,0.176171164565251,0.175827876609838,0.175904964923117,0.176362859685898,0.177165725294361,0.17828096845877,0.179679853363949,0.181338257580401,0.18323627318708,0.185354334185265,0.187661415508634,0.190087701621724,0.192473038275207,0.194496200768408,0.195647179165071,0.195413340314986,0.193852126159679,0.192264083689548,0.192735092128954,0.194633152491001,0.191182093212847,0.178673876540584,0.162569205126674,0.147309567350073,0.13302471400088,0.118734555974408,0.107156898754525,0.105536994645724,0.112449912389386,0.117225780082635,0.114585349625434,0.104908269331276,0.0910132193947275,0.077746988279809,0.0703342402435276,0.0700348462381835,0.0733132351643133,0.0759892514981806,0.0758349794342961,0.0721207336405381,0.0642951818629887,0.0508078607185605,0.0284934855547867,-0.00660140871270354,-0.0550203303529734,-0.104998445238934,-0.130779833367755,-0.117965794220125,-0.0807918812556752,-0.0396962050582476,-0.0044577905926475,0.0232213282428022,0.0444750272301511,0.0608641464182533,0.0736940000847,0.0839291357440861,0.0922559909053751,0.0991597533442938,0.104985277157144,0.109980270745109,0.114324868145848,0.118151742893777,0.121559859988977,0.124623972216247,0.127401252723869,0.129935979525466,0.132262878445001,0.134409531113977,0.136398124365244,0.138246731350515,0.139970257026949,0.14158114138475,0.143089886679894,0.144505456011843,0.145835577254373,0.147086976891089,0.148265561564012,0.149376560315497,0.150424637035542,0.151413980126831,0.152348374592581,0.153231260440472,0.15406578033943,0.154854818764772,0.155601034349657,0.156306886775876,0.156974659248145,0.157606477377328,0.158204325130551,0.158770058376573,0.159305416453577,0.159812032106534,0.160291440077454,0.160745084580683,0.161174325853658,0.161580445939756,0.161964653832063,0.162328090083943,0.162671830973482,0.162996892293251,0.163304232823855,0.163594757539125,0.1638693205819,0.164128728042109,0.164373740562768,0.164605075794724,0.164823410716782,0.165029383834732,0.165223597270078,0.165406618747157,0.16557898348568,0.165741196004406,0.165893731840582,0.166037039189102,0.16617154046461,0.166297633789438,0.166415694409947,0.166526076043558,0.166629112158725,0.166725117189885,0.166814387689526,0.166897203419384,0.166973828382812,0.167044511800441,0.167109489031144,0.167168982440477,0.167223202218672,0.167272347150326,0.167316605337906,0.167356154881195,0.167391164514789,0.167421794205705,0.167448195713189,0.167470513112651
0.168450332469381,0.180541542705981,0.193115673896558,0.205836633516821,0.218169818747915,0.229377636555793,0.238584936108011,0.244937214541355,0.247827474363788,0.24710339907173,0.243142522008891,0.236744446766588,0.228897849920336,0.220541289749931,0.212408804726506,0.204980465800269,0.198507511410616,0.193070519375643,0.188641041533951,0.185132628336307,0.182437385265882,0.18044885363339,0.179073623187791,0.178234649626107,0.177869432314854,0.177925932429853,0.178358342704545,0.179123828067436,0.180180504324139,0.181486394994911,0.182998858114905,0.18467383123065,0.186464014429186,0.188314668775553,0.190155120371835,0.191884033212978,0.193349396133467,0.194334927420193,0.194587154603682,0.193936206844751,0.192517461972144,0.190916347479071,0.18976449667608,0.188359642629942,0.183913739428728,0.174615911098197,0.161809362328443,0.146950931141561,0.129447768365163,0.108133082733135,0.0884033862000151,0.0867469309683166,0.101254697491176,0.112604739621226,0.11511701013623,0.110976777537984,0.103327523440554,0.0953672665559189,0.0897176941711388,0.0871410881516013,0.0863347462904753,0.0853195000458777,0.0827707232294179,0.0782737590199249,0.0716218642025503,0.0615743661482719,0.0452609561529613,0.0196629679169984,-0.0146267091863518,-0.0489095595759896,-0.067967298943385,-0.0632673834993353,-0.0410650276205187,-0.0129888981457837,0.0135021110447953,0.0358099081662973,0.0538123891567275,0.0681945035832914,0.0797432004136456,0.089129626280837,0.0968740646092303,0.103365614963951,0.108891786573282,0.113664774944728,0.117841846279914,0.121540380763575,0.124848763447417,0.127834220699097,0.130548456668846,0.133031716018732,0.135315721883642,0.137425808815943,0.139382478344439,0.141202539455679,0.142899949935092,0.144486441497545,0.145971988085863,0.147365159891533,0.148673393630588,0.149903201022667,0.151060331294703,0.152149899161057,0.153176486615182,0.154144224642551,0.155056859372079,0.155917806039319,0.156730193308377,0.157496899898152,0.158220585016868,0.158903713781108,0.159548578549037,0.160157316910068,0.160731926928445,0.161274280125158,0.16178613259314,0.162269134569124,0.162724838727811,0.163154707416941,0.163560119013397,0.163942373548736,0.164302697726487,0.164642249431766,0.164962121815934,0.165263347024061,0.165546899620743,0.16581369975946,0.166064616132405,0.166300468730645,0.166522031438852,0.166730034484084,0.166925166754403,0.167108077999917,0.167279380926456,0.167439653190022,0.167589439298624,0.167729252426868,0.16785957614771,0.167980866085041,0.168093551490228,0.168198036745357,0.168294702795593,0.168383908512885,0.168465991993166,0.168541271789036,0.168610048079942,0.168672603781854,0.168729205598384,0.168780105015372,0.168825539240969,0.168865732093231,0.168900894837291,0.168931226974166,0.168956916983259,0.168978143020659,0.168995073575203,0.169007868084422,0.169016677512288,0.169021644890786
0.161313492756193,0.171453943485671,0.181767543038377,0.191971910668656,0.201667393564607,0.210351140702607,0.217470997836181,0.222522721410768,0.225170800633522,0.225348834907449,0.22329155881251,0.219479214802455,0.214519373137273,0.209018089196589,0.20348509372206,0.198290003747508,0.193661762951729,0.189713212533755,0.186474268226775,0.183923301181769,0.182011946314661,0.180682132660666,0.179875996162319,0.179540210279812,0.179626578262793,0.180090627212993,0.180889536723229,0.181980194511602,0.183317678653537,0.184854123427373,0.186537734196276,0.188311614733053,0.190111993705827,0.191865379410509,0.193484273978821,0.19486178329415,0.195867652737949,0.196352844852293,0.196175319629339,0.195257507170416,0.193658441865258,0.191578485257245,0.189147140264921,0.185963826974122,0.180942676130991,0.173119790343116,0.162310734169261,0.148370688003319,0.130292834603261,0.107380043746111,0.0862839373009123,0.0846528919221161,0.100331764397297,0.113528185005365,0.118470816308168,0.117400358768934,0.113127156488615,0.10789106712032,0.103204426562313,0.099547090522123,0.0963861210122565,0.0927635767773607,0.0880861962624426,0.0826410502313433,0.0771832627924405,0.0710898831547651,0.0613094622724726,0.044966096688241,0.0229497690190641,0.00111436788320707,-0.0122423855331419,-0.0122965472496618,-0.00100461795954765,0.0160546673126172,0.0341190127402033,0.0506835490214603,0.0649217605499943,0.0768405339481018,0.0867513985635657,0.0950240673106428,0.101993263906047,0.107933607885522,0.11306068147075,0.117540286022046,0.121498876705012,0.125032784016051,0.128215650883986,0.13110417180389,0.133742416121504,0.136165039201543,0.138399648065649,0.140468536944133,0.142389959476027,0.144179063190759,0.145848579205357,0.147409334959047,0.14887063898533,0.150240572870353,0.151526215498223,0.152733817477092,0.15386893851633,0.154936556905571,0.155941157699429,0.156886804421414,0.157777197839932,0.158615724477325,0.159405496876324,0.160149387188901,0.160850055315721,0.161509972573648,0.162131441678268,0.162716613681155,0.163267502385749,0.163785996673161,0.164273871094128,0.164732795022156,0.1651643406122,0.165569989767351,0.165951140281166,0.166309111294159,0.16664514817881,0.16696042694718,0.167256058258512,0.16753309109007,0.167792516123029,0.168035268885513,0.168262232687037,0.168474241372038,0.1686720819149,0.168856496874518,0.169028186722876,0.169187812059297,0.169335995719751,0.169473324788743,0.169600352519896,0.169717600170215,0.169825558752148,0.169924690706894,0.170015431501917,0.170098191155314,0.170173355689301,0.170241288515085,0.170302331751109,0.170356807476706,0.170405018923126,0.170447251603872,0.170483774386317,0.170514840506602,0.170540688529765,0.170561543257154,0.170577616583132,0.170589108303113,0.170596206874979,0.170599090135878,0.170597925976474,0.17059287297461,0.170584080990351,0.170571691724385
0.15506930661129,0.163662042687863,0.172247044831009,0.180600004556736,0.188430117317918,0.195397391527505,0.201151522683144,0.205390362967594,0.207925127323958,0.208730435630963,0.207958092388215,0.205907055510585,0.202961102279376,0.199517826683398,0.195931194109272,0.192478867196001,0.189353702531622,0.186672047911267,0.184490262443507,0.182822842145578,0.18165825164545,0.180970789567186,0.180728272315023,0.180896141260855,0.181438961970458,0.182320320689315,0.183501942424874,0.184942572670912,0.186596887033804,0.188414485729965,0.190338910581437,0.1923065770243,0.194245527187259,0.196073995203477,0.197699003397745,0.199015724213828,0.199909311990087,0.200262212140351,0.199970451472015,0.198969036611731,0.197254839668382,0.194874268527342,0.191830288758607,0.187918263562675,0.182655285760357,0.175469179503026,0.165912817692289,0.153562781459297,0.137945841597716,0.119752497319793,0.104628094493521,0.102344234588464,0.111343734893015,0.120365789300376,0.124487500626832,0.124313430423333,0.121530750932089,0.11755166150509,0.113257502238965,0.10889444384928,0.104118933246087,0.0983075843541166,0.0911749250643303,0.0836770752960834,0.0782099621039802,0.0755872026643796,0.0720182522486512,0.0635721544839511,0.0507606809121393,0.0375705901920635,0.0287601419067398,0.0271947440198208,0.0325748140435049,0.0424648872149505,0.0541856853938043,0.0658817044777074,0.0766155736515484,0.0860704999491515,0.0942535209551774,0.101305741298245,0.107403607471999,0.112715006279899,0.11738357508197,0.121526024226841,0.125234734372798,0.128581974687583,0.131624148758868,0.134405466037347,0.136960890977865,0.139318414317481,0.141500758291357,0.14352663797998,0.145411687857727,0.147169142104295,0.148810336697485,0.150345083650918,0.151781953756265,0.153128493626272,0.154391395139556,0.155576629923047,0.156689557698698,0.157735014702033,0.15871738659398,0.15964066907394,0.160508518574788,0.161324294851676,0.162091096878231,0.162811793178747,0.163489047514254,0.164125340680178,0.164722989047122,0.165284160374509,0.165810887342814,0.166305079179626,0.166768531695317,0.167202935993331,0.167609886077094,0.167990885538803,0.168347353484168,0.168680629820896,0.168991980016435,0.169282599411785,0.169553617162703,0.169806099866436,0.170041054921517,0.170259433659124,0.170462134277165,0.170650004602386,0.170823844700674,0.170984409351976,0.171132410402884,0.17126851900746,0.171393367764726,0.171507552759749,0.171611635513802,0.171706144848283,0.171791578666159,0.171868405654179,0.171937066908726,0.171997977487806,0.172051527891453,0.172098085472732,0.172137995781397,0.172171583842198,0.172199155369843,0.172220997922595,0.17223738199646,0.172248562062026,0.172254777545906,0.172256253758863,0.172253202772645,0.172245824247577,0.172234306212951,0.172218825802268,0.172199549945338,0.172176636019252,0.172150232460198,0.172120479338033
0.149710768496992,0.157087930477691,0.164358945734448,0.171351041069862,0.177855408708057,0.183642345827575,0.188487697229491,0.192207837398836,0.194695456321147,0.195945160871382,0.196059305861209,0.19523105080967,0.193710205939379,0.191763105662836,0.189637776711308,0.187541196364502,0.185629838064183,0.18401075047184,0.182748939307286,0.181877180332801,0.181405556986425,0.181329244217813,0.181634019704174,0.182299608932466,0.183301301561299,0.18461037914833,0.186193841594577,0.188013786604833,0.190026649554803,0.192182395576172,0.194423691433284,0.196685073833039,0.198892169718388,0.200961115449274,0.202798479828718,0.204302239583459,0.205364672527095,0.205878281652334,0.205745580787729,0.204891736723516,0.203274195130642,0.200875476320469,0.19766195331627,0.193513376862279,0.188180739404861,0.181340284642286,0.172710722083608,0.162152990986521,0.149877374464841,0.137156628388486,0.127339717734587,0.124210587615277,0.126881218616593,0.130593444012765,0.132299641735128,0.131587345708001,0.129092603839514,0.125525558880225,0.121310489300489,0.116455818324764,0.11054976615119,0.102921195905775,0.0931629756068657,0.0824679490528457,0.0750855363143275,0.0745157733173287,0.0764562411213918,0.0748820376838137,0.069268254776909,0.0623972890497522,0.0573456870603273,0.0560335275791712,0.0587505032103561,0.0645495708706854,0.0720615505797744,0.0801175143347581,0.0879679574545849,0.0952374690722086,0.101797817395005,0.107655051412696,0.112874893765378,0.117541015429624,0.121734804042783,0.125527326264868,0.128977486374562,0.132132943427223,0.135031981627181,0.137705473759523,0.140178587758169,0.142472141784924,0.144603627338046,0.146587960593293,0.148438027823553,0.150165082017256,0.151779035072619,0.153288677817522,0.15470185025254,0.156025577081431,0.157266178446098,0.158429362325311,0.159520302815084,0.160543707098522,0.161503873046535,0.162404738866911,0.163249925902782,0.164042775485615,0.164786380619113,0.165483613177543,0.166137147227242,0.166749479014693,0.167322944104144,0.167859732091181,0.168361899265366,0.16883137954562,0.169269993966648,0.16967945895368,0.170061393586329,0.170417326020212,0.170748699207205,0.171056876031084,0.171343143955033,0.171608719260222,0.171854750940136,0.172082324303488,0.172292464328386,0.172486138802427,0.172664261276567,0.172827693855207,0.172977249840557,0.173113696245682,0.173237756187919,0.17335011117193,0.173451403270029,0.173542237205871,0.17362318234657,0.173694774607465,0.173757518273103,0.173811887737502,0.173858329166454,0.173897262084376,0.17392908088794,0.173954156288794,0.173972836687379,0.173985449479997,0.173992302301189,0.173993684203454,0.173989866776405,0.17398110520743,0.173967639285954,0.173949694353383,0.173927482200861,0.173901201916906,0.173871040687049,0.173837174547524,0.173799769095102,0.173758980155068,0.17371495440936,0.173667829986805
0.145182895547135,0.15160992147866,0.157883019991414,0.16387120886902,0.169425262802347,0.174389444050436,0.178619001705736,0.182001162232191,0.184475106415677,0.186045339888317,0.186783983470089,0.186820800066716,0.1863237906824,0.185475925821154,0.184453848182215,0.183412518650703,0.182477110655859,0.181741272848,0.181269762314768,0.181103306964675,0.18126398420342,0.181760018695883,0.182589468771724,0.18374269044629,0.185203723422822,0.186950856531986,0.188956639284749,0.191187555708416,0.193603507195458,0.196157192668158,0.198793442979862,0.201448566279417,0.204049789187297,0.206514930055979,0.208752511638203,0.210662610503318,0.212138847552109,0.213072014681627,0.21335574075467,0.21289383166194,0.211606631357034,0.209429897478283,0.206298305777906,0.20211630470096,0.196743575797917,0.190033809906931,0.181935226776385,0.172627076576877,0.162684007242947,0.153254698999272,0.14598951609453,0.142110727401723,0.141092916057076,0.141040679440336,0.140381743595873,0.138574135971594,0.13574902982895,0.132194725921622,0.128026441731892,0.123039587164633,0.116688999347778,0.10819764193845,0.0970256415656192,0.0843532965471372,0.0751931810828235,0.0748010182755927,0.0796531512849799,0.0827428694009567,0.0822617128124066,0.0798801404578851,0.0777221574526292,0.0772195818595072,0.0788719265756002,0.0824303976965983,0.0872760735533422,0.092760773377192,0.0983883869581075,0.103852323919611,0.108999178869272,0.113774817267357,0.118179347681468,0.122237337246606,0.125981013310911,0.129442173068979,0.132649106159767,0.13562601988514,0.138393494424677,0.140969211180582,0.143368625423482,0.145605480372343,0.147692162588234,0.14963993464241,0.151459085567083,0.15315903203633,0.154748393053238,0.156235052049557,0.157626213840432,0.158928459703519,0.160147801446892,0.161289734134138,0.16235928668906,0.163361069574462,0.164299318912269,0.165177936653155,0.166000526640314,0.166770426609762,0.167490736316562,0.168164342074277,0.168793938050368,0.169382044682526,0.169931024579046,0.17044309624823,0.170920345973716,0.171364738119591,0.171778124114306,0.17216225032853,0.172518765030056,0.172849224570118,0.173155098929837,0.173437776733329,0.173698569815026,0.173938717412687,0.174159390044285,0.174361693115674,0.174546670297024,0.174715306698388,0.17486853186891,0.175007222639106,0.175132205822031,0.175244260785729,0.175344121907178,0.175432480915859,0.175509989133564,0.175577259615995,0.175634869200657,0.175683360465001,0.175723243598176,0.175754998189352,0.175779074935446,0.175795897270629,0.175805862920166,0.1758093453808,0.175806695329957,0.175798241966036,0.17578429428195,0.175765142274153,0.175741058089356,0.175712297111146,0.17567909898873,0.175641688609997,0.175600277021126,0.175555062294923,0.175506230350083,0.175453955723496,0.175398402297758,0.175339723985971,0.175278065375849,0.175213562335179
0.141406611154531,0.14709198844777,0.152605575045752,0.15784868948637,0.162714591390366,0.167097063186225,0.170901850113799,0.174059340416787,0.176535891829812,0.178340914199883,0.179527578830901,0.18018671829494,0.180435430582535,0.180403247099226,0.180218947469087,0.180000302417709,0.179847743227239,0.179841784284913,0.180043304667399,0.180495563822918,0.181226941282725,0.182253668519453,0.183582124365167,0.185210517796985,0.18712995518748,0.189324983815686,0.191773735356189,0.194447784737469,0.197311813886739,0.20032314420257,0.203431186031469,0.20657684977834,0.209691967090147,0.212698774715721,0.215509514913077,0.218026216202409,0.220140774862751,0.221735615338102,0.222685455240623,0.222860773550389,0.22213285256648,0.220378363150374,0.217480150574067,0.21332504225959,0.20781160588818,0.200891108821922,0.192657264807956,0.183472172454906,0.174069398056472,0.165503733368198,0.158794244297302,0.15434262127991,0.151623614692362,0.149553758928803,0.147219036603601,0.144292418185779,0.140914812150364,0.137303545765506,0.133426319778289,0.128896536567625,0.123048358719318,0.115129247689004,0.104779560493735,0.0932473374735832,0.0847152680938574,0.0834294338503538,0.087494466560921,0.0916439017090256,0.0935352735621604,0.0936603334781541,0.0932817050332548,0.0934164660982062,0.0945750778490271,0.0968166643267709,0.0999261504291149,0.10359593439458,0.107545933528055,0.111572232401322,0.115547753145194,0.119402703380393,0.123102864047718,0.126633263130617,0.12998830942908,0.133166815492903,0.136169920045099,0.139000393368451,0.141662430884069,0.144161517130614,0.146504224669529,0.148697944922225,0.150750591307137,0.15267031591759,0.154465267165159,0.156143400781265,0.157712345275669,0.159179316163389,0.160551070140767,0.161833889713454,0.163033589509265,0.164155536897068,0.165204681104653,0.16618558651676,0.16710246711278,0.167959220031563,0.168759457035183,0.16950653321527,0.170203572683294,0.170853491248576,0.171459016249269,0.172022703790642,0.172546953684516,0.173034022390237,0.173486034244329,0.173904991241157,0.174292781597121,0.174651187299525,0.174981890811205,0.175286481074199,0.175566458931147,0.175823242061808,0.176058169513899,0.176272505892321,0.176467445258298,0.176644114779661,0.176803578165224,0.176946838909495,0.177074843368588,0.177188483684007,0.177288600567629,0.177375985958493,0.17745138556014,0.177515501265447,0.177568993474891,0.177612483313097,0.177646554747923,0.177671756615749,0.177688604556267,0.177697582859856,0.177699146230258,0.177693721465352,0.177681709058508,0.177663484723122,0.17763940084277,0.177609787849432,0.17757495553226,0.177535194279268,0.177490776254438,0.177441956512549,0.177388974054247,0.177332052823625,0.177271402650759,0.177207220141486,0.177139689516757,0.17706898340381,0.176995263581403,0.176918681681292,0.176839379848059,0.176757491359368
0.138294071990798,0.143400209003503,0.148333613070342,0.153019916621335,0.157382400137046,0.161348075621786,0.164855129366795,0.167860644321652,0.170347112190261,0.172326223268377,0.173838910817242,0.174951519352517,0.175748936890956,0.176326198645144,0.176780207863463,0.177202863520988,0.17767626748307,0.178270076937262,0.179040648298111,0.180031431213768,0.181274067871536,0.18278975419599,0.184590557145709,0.186680512605252,0.189056430160073,0.191708398194204,0.194620018250573,0.197768409483017,0.201124021982881,0.20465028989127,0.208303145529349,0.212030402911627,0.215770996460521,0.21945401964011,0.222997444628722,0.226306334491688,0.229270346249121,0.23176050371046,0.233625795210538,0.234691244949081,0.234760349024565,0.233624819082152,0.231081795093261,0.226954407071338,0.221112629620137,0.213503235752592,0.204212894716593,0.193591640119342,0.182438693702505,0.172140164002813,0.164346352947041,0.159767571990764,0.157249751829263,0.154880455051293,0.151613133545076,0.147573221902375,0.143489314706176,0.139943607478914,0.136880192573403,0.13363928153359,0.129338713092009,0.123273208032066,0.115344936722382,0.106727114408374,0.100176218890121,0.0981770283793919,0.100046328983465,0.102932645469356,0.104940666179378,0.105821341325223,0.106105145513359,0.106399639063885,0.107109962033116,0.10840051492227,0.110258968899028,0.112583280701328,0.115249351020637,0.118146536160755,0.12118748720885,0.124304949891708,0.127445504476086,0.130565012152426,0.133626591511482,0.136600197862475,0.139462681557208,0.14219764075961,0.144794858319235,0.147249398645784,0.149560540239631,0.151730707950523,0.153764515056641,0.155667969262962,0.15744785488042,0.159111278125102,0.160665350362677,0.162116980741012,0.163472751218508,0.164738850869403,0.165921050912193,0.167024706284604,0.168054773373535,0.169015836574641,0.169912138725055,0.170747612213031,0.171525908831451,0.17225042731749,0.17292433810479,0.173550605186341,0.174132005208772,0.17467114403925,0.175170471099241,0.175632291770572,0.176058778165182,0.176451978522737,0.176813825467558,0.177146143322204,0.177450654643057,0.177728986114187,0.177982673910477,0.178213168619548,0.178421839794151,0.178609980191943,0.178778809747784,0.17892947931415,0.179063074197592,0.179180617513482,0.179283073376304,0.179371349939494,0.179446302295811,0.179508735247199,0.1795594059515,0.179599026452078,0.17962826609563,0.179647753842623,0.179658080474436,0.179659800700816,0.179653435171041,0.179639472392016,0.179618370556306,0.179590559283102,0.179556441275023,0.179516393893544,0.179470770655944,0.179419902656478,0.179364099914558,0.179303652652701,0.179238832506879,0.179169893672039,0.179097073985344,0.179020595949821,0.178940667700926,0.178857483918596,0.178771226687221,0.178682066305967,0.178590162051847,0.178495662897767,0.178398708187849,0.178299428272164
0.13575776142622,0.140410930501837,0.144899432561261,0.149166968795864,0.153157975333931,0.156821842318542,0.160117740407233,0.163019359417347,0.165518707446528,0.167628178210126,0.169380398691047,0.170825842264418,0.172028673558258,0.173061612188633,0.174000672828562,0.174920482614827,0.175890598931496,0.176972968750107,0.17822046019078,0.179676277408641,0.181374024596491,0.183338187117574,0.185584826237725,0.18812232520679,0.190952069704486,0.194068988006021,0.197461910483952,0.201113731611019,0.205001370258575,0.20909552657369,0.213360225627364,0.217752115625744,0.222219443459114,0.226700550117222,0.231121599848737,0.235393078806815,0.239404417927254,0.243016091916518,0.246049195247212,0.24827465905958,0.249408561974148,0.249124226445409,0.247088084816639,0.243007448576266,0.23665844829287,0.227876026483045,0.216540945641206,0.202666434670969,0.186797374478633,0.171014503022483,0.15970656651717,0.156164312276933,0.157061322978536,0.156592482830322,0.152782195145551,0.146985285445432,0.141615666774817,0.138340640437328,0.13705105900403,0.136336403253569,0.134718135084987,0.131390310534462,0.126413008340203,0.120778969315378,0.116192635588484,0.114039002800181,0.114214719163603,0.115435160891477,0.116534147578949,0.117080387219585,0.117183663722151,0.117143669226502,0.117237865439652,0.117647523306898,0.118459707249549,0.119696007490832,0.121339892989566,0.123352788822933,0.125680931255828,0.128259012867917,0.131014749568666,0.133874995696825,0.136771923255044,0.139647638385648,0.142456503783151,0.145165350707526,0.147752241034176,0.150204498803826,0.152516567191144,0.154688030586924,0.156721961106234,0.158623629132626,0.160399551545647,0.162056822683785,0.163602666651946,0.165044154400322,0.166388038360434,0.167640667642777,0.168807956115891,0.169895383429385,0.170908015115202,0.171850532464464,0.172727266189827,0.173542230213363,0.174299153508296,0.175001508968775,0.175652538942681,0.176255277457284,0.176812569384332,0.177327086892884,0.177801343568393,0.178237706565333,0.178638407127404,0.179005549766521,0.179341120347038,0.179646993279113,0.179924937987007,0.180176624785315,0.180403630268567,0.180607442297098,0.180789464643897,0.180951021352634,0.1810933608458,0.18121765981296,0.181325026902467,0.181416506234674,0.181493080750892,0.181555675409319,0.181605160237035,0.181642353245518,0.181668023215978,0.181682892359931,0.181687638859827,0.181682899294075,0.181669270950571,0.181647314032501,0.181617553760099,0.181580482371956,0.18153656102928,0.181486221626568,0.181429868512,0.1813678801209,0.181300610525487,0.18122839090414,0.181151530933382,0.181070320105654,0.180985028975986,0.180895910340591,0.180803200350293,0.180707119561744,0.180607873929191,0.180505655739632,0.180400644493965,0.180293007736795,0.180182901837407,0.180070472724362,0.179955856576071,0.179839180469673
0.133715402593849,0.138014020954084,0.142160391217858,0.146111630052338,0.149827128171512,0.153271401246834,0.156417186763517,0.159248357417234,0.161762180235272,0.163970523164717,0.16589979073313,0.167589604631271,0.169090455907869,0.170460680037057,0.171763128289996,0.173061859671797,0.17441910551935,0.175892694690519,0.17753407225253,0.179386984096258,0.181486826124779,0.183860578849726,0.186527185884473,0.189498203712749,0.192778553344305,0.196367233077638,0.200257891074913,0.204439193504368,0.208894949861243,0.213603967248623,0.218539597211647,0.223668908260337,0.228951356427906,0.234336719983088,0.239761887477756,0.245145804946598,0.250381472848517,0.255323428174378,0.259769212148849,0.26343566994622,0.265938792956356,0.266799551320949,0.265501636275426,0.261586501549133,0.254699356972346,0.244504568022232,0.230509998742223,0.211977494348818,0.188401199950771,0.162008872725027,0.142813603776315,0.142378613851081,0.15196921989792,0.155719761700569,0.150434881652778,0.140479943873494,0.132087541395636,0.12947514468439,0.13195153182558,0.135880523420255,0.138400866593844,0.138524143242975,0.136553045399816,0.133474895153082,0.130512948989336,0.128577036277113,0.127815790920028,0.127732460773355,0.127719070413602,0.127434729208503,0.126839917470491,0.12607033432402,0.125317859782046,0.124765657771573,0.124564044324337,0.124823400097608,0.125609224639273,0.12693680156268,0.128770449598411,0.131031765270311,0.133615808967748,0.136409808697156,0.139308737677576,0.142224852332921,0.145091246067244,0.147861118226547,0.150504741062516,0.153005659584843,0.155357045958049,0.157558633961111,0.159614346170839,0.161530565001898,0.163314934682578,0.164975570177989,0.166520562188224,0.167957688597273,0.169294264288839,0.170537079859981,0.17169239457517,0.172765960089477,0.173763059601628,0.174688552823804,0.175546921068358,0.176342309344051,0.177078564011243,0.17775926555773,0.178387756637073,0.1789671658112,0.179500427563738,0.179990299171218,0.180439374982969,0.18085009859641,0.18122477334145,0.181565571415302,0.18187454194342,0.182153618185245,0.182404624055855,0.182629280095782,0.182829208990259,0.183005940714761,0.183160917365,0.183295497715017,0.183410961536258,0.183508513702372,0.183589288098543,0.183654351349757,0.183704706379319,0.183741295806635,0.183765005191761,0.183776666133027,0.18377705922346,0.183766916870977,0.183746925987264,0.183717730549742,0.183679934041129,0.183634101770798,0.183580763082198,0.183520413450432,0.183453516474139,0.183380505765682,0.183301786743616,0.183217738331393,0.183128714566102,0.183035046121082,0.182937041746057,0.182834989628423,0.182729158679246,0.182619799747364,0.182507146764952,0.182391417827829,0.182272816213586,0.182151531340629,0.182027739671079,0.18190160556033,0.181773282056055,0.181642911649242,0.181510626979826,0.181376551499342
0.132092225123652,0.136113375193068,0.139996462454865,0.14370871086148,0.147220219418634,0.150505786892162,0.153546816476218,0.156333062296319,0.15886399753824,0.161149652063991,0.163210859088937,0.165078923334451,0.166794744634846,0.168407406534462,0.169972216226161,0.171548217858414,0.173195314578665,0.174971280535865,0.176929038952479,0.179114562889776,0.181565621117107,0.184311400685857,0.187372865790432,0.190763610197963,0.194490938177958,0.198556945476528,0.202959435026704,0.207692563683666,0.212747159065528,0.218110662136569,0.223766639523007,0.229693768577506,0.235864123771701,0.242240473854353,0.248772109662483,0.255388407401367,0.26198878666797,0.268426814705947,0.274485086500453,0.279837924136502,0.284007374235539,0.286345400525774,0.28610836554587,0.282637068432035,0.275467105739666,0.264152592369825,0.247868847716917,0.225065415986547,0.193786679574006,0.155376806039248,0.12579422044701,0.128964254577866,0.148627202505638,0.155259137721204,0.144702552955264,0.125209351778514,0.110065587206316,0.109375712271838,0.119829602006947,0.131888606826822,0.140359062595507,0.144555134536369,0.145511612512784,0.144570912782136,0.142910664619752,0.141316912336143,0.140072576146383,0.139055691391782,0.13799536452291,0.136691332087441,0.135093990254995,0.133284518862016,0.131427683731328,0.129732995432931,0.128424502451117,0.127707957473476,0.127732230552265,0.128556434164727,0.130139432079545,0.13235795165629,0.135043445132675,0.13802052031289,0.141134376181135,0.144263855114595,0.14732316736371,0.150257248624813,0.153034813849853,0.15564151408414,0.15807425033286,0.160336889205676,0.162437244810673,0.164385064772892,0.166190754226156,0.16786461437677,0.169416424856643,0.170855246516277,0.172189359112054,0.17342627655315,0.174572802559284,0.175635103573708,0.176618785207123,0.17752896466363,0.178370335509954,0.179147223521748,0.179863633695675,0.180523289218097,0.181129663479303,0.18168600628318,0.18219536533422,0.18266060395422,0.183084415831439,0.183469337457449,0.18381775877398,0.184131932437816,0.184413982017533,0.184665909359978,0.184889601304715,0.185086835878542,0.185259288067138,0.185408535234574,0.185536062242053,0.185643266303,0.185731461601453,0.185801883693538,0.185855693706606,0.185893982347323,0.185917773727585,0.185928029015598,0.185925649918549,0.185911482002677,0.185886317856205,0.185850900100393,0.185805924253932,0.185752041455741,0.185689861051392,0.185619953048103,0.185542850443494,0.185459051433051,0.185369021501294,0.185273195401506,0.185171979028897,0.185065751191854,0.184954865285865,0.184839650874684,0.184720415182972,0.184597444504706,0.184471005531432,0.18434134660425,0.18420869889342,0.184073277509175,0.183935282547284,0.183794900072785,0.183652303045058,0.183507652187438,0.183361096804255,0.183212775548238,0.183062817140922,0.182911341048719
